250
1.1474687837048112 0.915267657113169 -2.027757094880884
-1.1593832583604184 -0.9199142453604461 -3.145260311278061
0.23879638227600508 -0.10530811145591731 -1.5036815958954404
-1.0197249850312002 -1.2930171163747035 -2.3916304641448423
-0.24647814674767418 -0.28096698393434466 -2.0079380696978704
-0.7552842264992485 -0.9470975587579612 -1.8244639166845262
-0.21561638706187486 -0.3917683996616391 -2.1465362994295605
-0.3801536664753237 -0.3345422199247385 -2.1831649801016546
0.46928939955942883 0.5518969683129774 -1.9459710511729855
-0.20751859949959345 -0.3839635942268591 -2.8248567781121787
-0.6578363744529123 -0.4531038050902672 -2.507379210990341
-1.0407128821376597 -0.5913286554276933 -2.9957539324804414
-0.6292711459752832 -0.821599538877713 -1.9075078399853675
-0.4541518627179082 -0.14153625766045763 -3.3796639556569055
-0.8438758050892629 -1.1499630133743681 -1.7255130975843358
0.522950267617197 0.5750981702833393 -2.7093685395835556
-0.28153995698725415 -0.4127039975973405 -2.4245763106414397
0.21734115431498008 0.22608842595647122 -2.399103337701556
0.31865001689089717 -0.22030195177367115 -1.802473089313909
0.34192835004870203 -0.09626982556973099 -1.786198143594197
0.14342180069758315 0.5377246303693782 -3.0611560290099846
0.5694800692377496 0.6866179665691464 -3.178616968533647
-0.21541332309301248 -0.46533858385462373 -2.1144842173800087
0.07166288264706693 0.21111683200249737 -2.7566719187843702
-1.161755020937824 -0.7058771407431248 -3.666210037854918
-0.5125149871148534 0.06458298890184541 -3.3706025703066587
0.6923849891800545 0.26005638552424654 -1.3839287822045265
0.3465871683644711 -0.1350612118565355 -1.5703160873717308
0.4411786442482249 0.03729473889250012 -1.7342376493290486
-0.503874887668662 -0.33465739494141494 -3.54231454153842
-1.076806558191685 -1.2215520246057372 -1.955580004643386
-1.0064054276357068 -0.8192564314703781 -2.7767759199077955
-0.4542409473437819 0.1083290700654775 -3.3998656721549056
0.592364112233364 0.6058987880910232 -2.2120377624325993
0.6785181678247615 0.5569242843211967 -2.6961820603553726
-0.7603436599894825 -0.898868070718778 -2.3697550124379254
-0.22221360797573877 0.010908651642133046 -2.8422855978516472
-0.9247223660019146 -0.447392880719753 -3.4127520427894384
-0.340112807346479 -0.52463431289965 -1.6745221175108447
-0.5700501182171092 -0.29206788395910144 -3.167873330364078
-0.1004858491748398 0.36203425692934316 -3.5530471598491724
-0.5728433213566417 -0.17385438617109633 -3.19335145923616
-0.1427636129001829 -0.4297615848740272 -2.0466377541265444
0.003746348810981154 0.21911898593001625 -2.9953826144907585
0.38306560798417344 0.10792053445045631 -1.4363154466682786
0.9477861554529974 0.8347338231229103 -1.8743130127276415
0.37986982898171406 0.6423329488486037 -3.0889097431351265
0.914807202823617 0.739297504243902 -1.6100038199695599
-0.9580444752924577 -1.2160324383300336 -2.486971788920196
0.7769297022850645 0.311897420732113 -1.5445290492819712
-0.655112045893457 -1.0435648274315432 -1.9670121630369977
-0.8337262847137269 -0.6493041426169762 -3.230793480017534
-0.5936925606009791 -0.5061417652746688 -2.2966980970938744
-0.33116039804150127 -0.3541361042490848 -1.9637932903756832
0.917516857156053 0.5558173903001167 -2.2296866876115184
-0.07420729031962751 -0.1899493030554575 -1.7278853744968237
0.3448812668191775 0.4722483599781556 -2.546614254761189
0.7849233322538979 0.18030212197739373 -1.5365700691082007
-0.12929931695427518 -0.12755048105307334 -2.613989142394574
0.49034693500037196 0.37152205331207677 -2.3534723197995993
-0.9009645196375071 -1.1400092344920818 -2.17759458229698
-0.942177636007051 -0.9340205427315282 -2.5913850289973497
0.6006525875464914 0.8265844871247416 -2.6802698132286156
0.9540827302727071 0.746806499284608 -2.031920559954968
0.6939864419836559 0.3641373233854922 -1.2762743899736015
-0.06197943638039365 -0.08179482692266188 -2.5782011508688174
-0.41417475153362393 -0.3288885584001592 -2.835814315896457
0.5994818741842604 0.6096864665956444 -2.547964160940225
0.5249953564737958 0.8286965561740031 -3.1365225812342024
-0.6448125659852579 -0.6306053585347656 -2.809055822792198
0.2613990812659348 0.5896593137164585 -3.2860982908723817
-0.1322102214352841 -0.630686798864647 -1.8187816008966324
0.522688346894314 0.1922742440822312 -1.7116259663651279
0.8718011672675479 1.0770902017671207 -2.8032334312675498
-0.17156477349235555 0.03350142132050413 -2.2743171937150453
0.15383945335208127 -0.1434759244425497 -1.8789079605704129
0.6112970898426575 0.9451211393073299 -2.9546388911392754
-0.38794506500779546 -0.2837954072520196 -2.3542174021962277
-0.06279255116293811 -0.0697625403814712 -2.9201247847234653
-0.3615655149811751 -0.03889372576453674 -3.0563196833391886
0.9044607264406836 1.0073605887889683 -2.907912960159961
-0.7345018041761702 -0.5121889378705513 -2.8760192673712592
0.6409281700432298 0.7337802505000032 -2.7974854093597483
0.005276278405319988 -0.2189193505740339 -2.162247383773986
-0.7534659703810239 -0.7953749473332136 -2.1695974389354262
1.2153186498435988 1.162332682547705 -2.8257733040627406
0.3035608612317571 0.3670503556165708 -2.4055535534554684
-0.976890982492169 -0.4248699428637998 -3.7446665909054557
-0.6573648467019029 -0.468266099549028 -2.945103890861314
0.03147861498421546 -0.0078109641852744 -2.8007766029257506
-0.743634033846184 -1.037382626868042 -2.0384779324892928
-1.1770701722419328 -0.5506665878971501 -4.037922951166428
-0.8028759900149405 -0.7908733136409103 -2.591692430309419
-0.869415065342336 -0.67842435109748 -2.8053610373764446
0.8260085332599304 0.7606885280839937 -2.1847950217264875
-0.34205313928663417 -0.4719605059478755 -2.009110329179157
-0.5620277318460196 -0.05236466566104351 -3.437757211678761
-0.2576818487499446 -0.14653640808265028 -2.689198191288709
-0.6553193647394 -1.0965353507559688 -1.8650190144835888
1.330392798429676 1.2165527197961195 -2.5011161907441584
-0.581932089963769 -0.6164178394169719 -2.2943470676721276
-0.5235708100709675 -0.5344979135938289 -2.75774112574315
0.5083872137687391 0.8027942044558889 -3.1064800436722892
0.550431664103918 0.47353245783449466 -1.8971391390672443
-0.42505401371507884 0.01622847543212566 -3.5019929511612173
0.4812821103047018 0.4021563791964292 -2.4780592604406473
-0.7358438184425792 -0.9779203623187641 -1.9037830727786667
0.2551942954005972 0.41499611423036864 -3.4643070982228337
-0.7152247708146059 -0.6432720893318185 -3.1111750841310646
-1.126645763765891 -0.554277470185982 -3.73721230944433
0.43332623688581806 0.2181213193089897 -1.653655819416477
0.8088943143938092 0.21601674099454804 -1.3939260451296673
-0.9814329672445472 -0.4547449131037341 -3.8132837527922945
-0.06811820563760582 0.08513885314840816 -2.9239420641926226
-1.1148769733133632 -1.1917587744572578 -1.9151705558703567
-0.24433052275231945 0.2632695176952151 -3.180232158244182
-1.1838299686496994 -0.8862054675378278 -3.3592841769812347
-0.1756330049176652 -0.023558154015321242 -3.5042395269901983
-0.054082976745220925 0.2173466725864907 -3.099884420167864
0.7845630520441316 0.4146257828882998 -1.5297379953445354
0.3878803826630184 -0.0951061506983882 -1.3921978130183128
1.0266514312978776 0.7221852877115387 -1.1734343284683726
0.917238145580745 0.25795506501070975 -1.2259251732412255
-0.6378166653811144 -0.7893964564376325 -2.2593669225244346
1.0848860507582334 1.205349633191962 -2.6904549483433007
0.19474959143081855 0.1889448237403521 -2.3008777918137486
-0.7797649406934516 -0.8705760094440815 -2.8457940497773695
-0.42327903468310235 -0.32617512579986907 -3.375160201258838
-0.4447312647771289 -0.6094053803239017 -1.8056507772379884
0.7319372988946923 0.5494184216247135 -1.8239041262476632
0.04903238618968063 0.09138067135498869 -2.5707774380586828
-0.3850764935986567 0.28030254107913843 -3.6151107292539706
-1.1721463713508702 -0.8801410496475508 -2.8920677145622493
0.49286946102266804 0.12648755983676496 -1.2955133896950732
0.5256510344525706 0.8312026447539038 -3.108090723316769
0.5879386097039491 0.30462526917727406 -1.7707789749862073
-0.4701763255928091 -0.37761809545560515 -3.203486646076985
0.029525200058175854 0.06889291218782512 -2.273721972025419
1.1093580158011522 1.2550215998011904 -3.0190326172057924
-0.03520679759680871 0.1714216011151099 -3.0248438045082437
0.5926861415164754 0.8062156473623342 -2.3611389320382266
-0.5372602484103789 -0.9449591743430694 -2.117973523260623
0.48341597279510695 -0.0030522718165208185 -1.2186858879968898
1.1204963371844636 0.757122654184643 -1.3871952982574274
-0.24936941333393448 -0.5543145378538463 -1.6282779905036187
-0.712751110610876 -1.0139009560886718 -2.0581457587588687
0.1692549345270076 0.010867286491282189 -1.7989353038698053
-0.5338765732536785 -0.3311071920515394 -3.1858784892698293
-0.011171703310648463 0.08267111693555655 -2.6320289123976903
-0.08377133863305576 -0.4869092583621298 -1.4663234774817253
-1.1097076515971327 -1.2427356562752598 -1.972053213227164
-0.6326370124515048 -0.0845122424086284 -3.61017599227904
1.1449318089792344 0.8428105273866744 -2.2014189827083595
-0.2564066616208869 -0.7391410132905651 -2.1760482552475886
0.05973117855006366 -0.02601755486086328 -1.9241776251617693
-1.086025964683565 -0.7036362177028445 -3.241986963088875
0.7135380311816552 0.5563658131927763 -1.5674364816463067
0.5757496359325344 0.5924157300326195 -2.5112738893855635
0.8732031013314556 1.2302637747328848 -3.05616304569747
0.026076014993482555 0.3679897373508856 -3.1734782560939965
0.9336407077271902 0.5477940733933944 -1.6224008584759697
-0.30057405999745035 -0.16652499889317096 -2.7656856029894437
-0.5371622469027794 -0.3681944987424359 -2.9772503180470364
-0.3915448295735795 -0.06976143255888445 -3.3891311587724933
-0.6011438975108669 -0.7291722285247169 -1.9955702182920363
0.4706385187479092 -0.06054766693819588 -1.4030406013673329
-0.8791558152266683 -1.0721390560506412 -1.9626972419643935
0.3358047937768376 0.15558909396547654 -2.5156478920094356
-0.7118430605404359 -0.5821565411650778 -3.2772432576791464
-0.24548585089297978 -0.353181045897086 -2.6810533590467736
0.7311321671819809 0.42121138407792336 -1.8000290924822795
0.8287230158090524 1.1894492034723512 -3.11950408921674
1.1786915207546285 1.1016193432146881 -2.27778468167737
0.9219584707078242 0.9630444854172199 -1.9742604754124458
0.2764444503450879 0.07833845054905125 -2.452634919868358
1.0040432930742036 0.8650302744523313 -2.645813949326454
1.1710818335901714 1.149917829217532 -2.480586211013695
-0.56108263228527 -0.7372562847502431 -2.350909638360105
0.34234810902534063 -0.19260123557038128 -1.410574234064773
-0.5126522196854973 -0.6870743002350537 -2.453839024268356
0.08178231040871504 0.11187558715915237 -2.6712159164509575
0.06793733957211576 0.031134865293429154 -1.7943282933284452
-0.037147122039525825 0.24415937740065752 -3.0106451320688508
-0.09613989500540981 -0.20165310016428423 -1.5172952224368523
-0.6107888322346351 -0.8437733911248602 -2.156262273686526
0.20547406038779747 0.5325333892383122 -2.8501703618611254
-0.9248609038667303 -1.1965397723030327 -2.2423076131743884
1.1381169553849875 1.1594340466989426 -2.521949803662467
-0.6544433048775167 -0.5046785255158382 -2.7249402599975183
0.9595543560607545 0.9937196483986233 -3.092476875431446
-0.17415482747598052 -0.38715622632205143 -2.076566329425722
1.2484872635686874 0.642445688847664 -1.1874132482290494
-0.12107168176885368 -0.02370279654859586 -3.1305595411665252
1.1604303960107998 1.1917504385957831 -2.7122307412346682
-1.0149681526953576 -0.6651620441884146 -3.665453006760915
-0.9424849740224724 -0.549225303509311 -3.9180863534096826
-0.5409905666587873 -0.9491089019336655 -2.0310892934312235
-1.0060792839656594 -1.0036801978075067 -2.3237576972447167
0.8803379149728419 0.7049794647596079 -2.432486526008226
0.7887178686268472 1.025446718112829 -3.1463195874504932
0.7446704743856161 1.0781496909616048 -3.2034695568361116
-0.32491449573701014 -0.183612754869466 -2.7233180957931244
-0.9029178015048278 -0.40730483862814976 -3.526741406054103
-1.1483404286202175 -1.0943871892271138 -3.182059014525447
-0.454417061648409 -0.5289342478719098 -2.4642370114718544
-0.7810278004748364 -0.42400985094552485 -2.6898248944096563
-1.1006678953336908 -0.822280229312026 -3.1225385236219085
0.2908478491331698 0.2940546821169488 -2.368319790665797
0.6451389031092065 0.706078842383322 -3.2931643252401557
0.8707145392267881 1.1447950270422536 -3.0999858177114468
0.9387399420442599 0.5264972612934347 -2.1797090419472718
-0.842658931890447 -0.2903299058733896 -3.7287511658484904
0.7964302873268692 0.39647834323997416 -1.497415117599757
0.689584535206325 0.17608839637395204 -1.361097276316749
-0.8037273654598762 -0.9826253702235705 -1.986656192725992
0.40395769963636546 0.5010604545307615 -2.42390491430895
-0.9869390838487635 -1.3281975527371497 -1.6724382919110723
0.4949867204433858 0.8048293739001282 -3.1946862024280214
-0.29617855704140544 0.2546121997480169 -3.133069006991917
0.44136837043937244 -0.17135841591667123 -1.53626767442979
-0.8943311164632186 -0.9630707891318951 -2.0215643129069583
0.2200444338701442 0.029457769015122343 -2.0845663437831163
-0.043507213461125405 -0.22128029630197005 -1.6236885876888338
0.1349412040511431 0.2509227145080093 -2.9647601732203266
-0.9771293336978281 -0.9828472410788998 -2.557726606010111
1.10689201002813 1.2647026786000035 -3.019065244922671
-0.5693476831194862 -0.34224279312651396 -2.8360864492977327
-1.0551219774198375 -0.5030423712304012 -3.6560462714970092
0.891873595565395 1.2696014742129722 -2.6554298441461808
0.1858141252806655 0.43645331341119425 -3.4155057904801134
0.5212281359643468 0.4279144894690089 -2.4793353341890962
-0.7478863728690142 -0.6191834853757205 -2.864004263702536
-0.10689672657256087 0.12768050935100422 -2.9808268381765903
-0.48150753752076375 -0.5718745942603055 -2.222881099627875
0.13694628762744032 -0.08982916190625588 -2.303992464246189
-0.27505699136523293 -0.1204173693435337 -2.7811362461340634
0.4683311769567837 -0.003291234283879285 -1.3535326182176601
1.1535165332110264 1.1716141461660934 -2.2598359041380194
-0.19142263610665666 -0.007914279688374909 -2.5567000615999413
0.30342850562233625 0.6584602000542303 -2.985113757624715
-0.21752042734510452 -0.21356232066374248 -2.215369262059728
-0.8529487190425468 -0.5806259163306988 -3.5138406346066935
0.21655666069777976 0.18870310402034846 -2.5947770785113726
0.6289070690458545 0.021612236734371293 -1.6332303917799018
0.26068651275250987 0.6675478011411058 -3.042020372350468
-0.887661398596252 -1.025589754077712 -2.9880887459006717
-0.9859243692447699 -1.2553109940477587 -1.9694021802434145
-0.8249015397346898 -0.710204632172193 -2.629276175317867
-1.1536528840309166 -0.7157390450370101 -2.970830710812799
0.635955947798775 0.9081596371262574 -3.1633292386648675
0.7038915425745911 0.6884997191388567 0.781013664824179
-0.2363152064884777 -0.1123896032669629 -0.7968370481076676
-0.5483861551375298 0.9426409385464221 -0.43075206206252914
0.8147922844819946 0.7811045727566222 0.8450089945207868
-0.6877008711184105 0.7594442870027618 0.2639899009262743
-0.5787436431623951 -0.3097681704398376 -0.6801624228214336
-0.11130368510774558 -0.832450092309079 -0.6693630190395203
-0.6056073070666614 0.3820546831134084 0.1476057383307059
0.7466462680734642 -0.5107318685615838 0.25921591343782624
-0.9311374693858088 0.03239692215413803 0.726452963427699
0.9682530877698337 -0.980254049282163 -0.49431703584636977
-0.5523006593449493 -0.904924811544479 -0.9796550874764487
-0.01960937551153652 -0.9090357086594119 -0.443343738306196
0.2799491382178245 -0.41061591687819154 -0.46069059768189713
0.18109304448713415 -0.2389318455807199 0.40504606792280184
-0.0077520975002778325 0.26641853161295503 -0.29321130599674117
-0.4259121076889827 -0.7335857724977961 0.8741607695979285
0.6096716920315892 0.8760570863127048 -0.6292389507043954
0.8663115256464511 0.8715064153842662 -0.432910972792691
-0.45073150315227406 0.10286314734674495 -0.6294215212628953
-0.11579777874646835 -0.6293647081246312 0.8947518359079185
-0.012350685017828766 0.9278355348479956 0.2898833450244236
-0.0313684539352288 0.935390491922395 -0.7136204365824743
0.2646597493329932 0.3237767356735952 -0.1323203456945481
-0.881285549322085 -0.014554797667933439 -0.06973211296384507
0.6134936215497271 -0.4866780200940475 -0.21713927403146283
-0.5196555855572456 0.37288683034472814 0.9797669066742309
-0.6451409262634762 0.6428934804525945 -0.5380228814367334
-0.884048373254466 -0.7223669639086527 0.8703062310847773
0.7770842067124561 -0.42147900903418 0.8955281322032138
0.6998610704628379 -0.13069041185665298 -0.06390089026705437
0.2597060431668454 -0.6839363300723746 -0.9704358265158142
-0.4689759650552283 -0.9691127361144782 0.34899768832451494
0.102937671625553 -0.3567037087944447 0.5604046742395172
-0.7084291375704459 -0.5102387224762328 -0.41537247592143256
-0.6081361070020157 -0.8241226324587934 0.739952360543215
-0.8236227088569799 0.36742067164327574 -0.7591982462845532
-0.9786019937116517 0.11453646014982755 0.8142181104407413
0.7209133346737704 -0.3230972317634999 -0.9456823413482756
0.6017187102600663 0.6119698645793319 0.7369762326055442
0.3392931997510662 0.6155577246301529 0.7949965646056405
-0.09234009901997542 0.11565060742982092 0.012262257656469489
0.3839678090484375 0.3658137352597497 0.04062727172663294
0.6569362961709426 0.011558773579732895 0.6497171247704638
-0.4363098237135141 -0.6430103340450235 0.939741140689428
0.48387905091215355 -0.4804166133911709 0.16247068458234337
0.9105245070763737 -0.8384921843758424 -0.8329315858765178
0.23826966283981443 -0.5510130423280846 0.5303679134670163
0.13630508589821022 0.33237618044699047 -0.7843721984108152
-0.8314338971268864 0.25024213661097927 -0.18053747773195905
