200
-0.978950581394555 -0.43164213639637095 -2.594459344349229
-0.21821226437512195 0.11733931158754242 -2.1209489714425467
-0.935939160232915 -0.8150033231438758 -3.3046689483562015
-0.23282143434303343 -0.3419709597918266 -2.730765061098023
0.2313879096170905 -0.07907267005048403 -3.1978691151114513
0.1447344845008786 -0.4146236374154578 -3.330485195669316
-0.09685739431524443 -0.3962439020019998 -3.297820345278346
-0.30921009604751076 -0.413833820840018 -3.004439603222847
-1.0299048262778208 -0.2956783536964548 -2.614309922943912
-0.9391088353098231 -0.31493251032056 -2.2875169380469296
0.2270686940428811 0.0020370867529928595 -2.649134365060171
-1.1923673331265832 -0.12142170470168945 -1.889315196780677
0.7369171192137326 0.1049366088640606 -3.2655641298249343
0.8131932125125076 0.6170567185880548 -1.8823617835059114
0.8017425500644212 -0.1533980557577038 -3.617748955207798
0.08078065004924843 -0.06248806496563086 -2.1220036501896553
1.0864187565825623 0.38940534767430807 -2.766995096214066
-1.3175443367903124 -0.25295964516980085 -2.206842451173997
-0.7567216094534441 -0.5962502076881881 -3.029221049839336
1.083853033707173 0.32993776933917385 -3.202552662443332
0.9650074938098201 0.42108525078836156 -2.1777206248881944
0.4610914672175198 0.5942288072545772 -1.6136804950583414
0.7022079954642086 0.10115234820704894 -2.9294340999499875
-0.736436038299045 -0.10533297971305403 -2.033863644047041
0.2668195002121091 0.372019967081836 -1.9395615086013227
-0.8442533641823093 -0.0839379425774141 -1.5221912604638719
-0.2924614919413567 -0.31812315090173354 -3.490983137440909
-0.7868286920299827 -0.6753585534310405 -3.089603693162374
-0.9304373205943567 -0.5322851726461632 -3.013300956956965
-0.8172202601664427 -0.06408554836246641 -1.6053430105019773
-0.12116888960272901 -0.3722436319892763 -3.270983052216997
0.0028928194630553627 -0.12836497971881816 -2.437318216543547
-0.5167354088278221 0.12136350202128907 -1.7300180906477225
0.3193756263961789 0.12017126392835431 -2.3906552867066218
0.05363905630014443 -0.04812590855784471 -2.1422412277476925
-0.06859977628212627 -0.2643562100421176 -2.91225040126876
1.329425210973873 0.5421150753844332 -2.3299432063391734
-0.18186015113337042 0.19463188359799743 -1.8437488334058394
0.27471650319965313 -0.22074027703776455 -3.4005608578208797
-0.723365148770186 0.06891706648804911 -1.9063262587827834
0.47529638354161885 0.6422617154428476 -1.500515049169923
-0.732526335457724 -0.07065004171223249 -2.0463503030990964
-0.29664574995834997 -0.10291989670793167 -2.947326023973401
0.7717502467375903 0.3990697358061361 -1.9224699362082038
-0.706479047358449 -0.40195175793733784 -3.2546340341103726
-0.14809899107247718 -0.06387051021313613 -2.640602161535226
1.1448301220636112 0.5935855357678743 -1.907804745640633
0.25732179160864255 -0.16379782544856097 -2.9976940323777295
-0.44982977175283595 -0.41305171737051627 -2.7626478541589754
-0.9103046550593751 -0.6377914343564468 -3.1168294935279905
1.2040828535287686 0.1917054564350589 -3.5340404560409473
-1.1569269391795984 -0.16059697234804865 -2.001643123640588
0.2664338514094309 0.05468537851864019 -3.1581318570490464
-1.147096300504049 -0.7618000319134003 -2.957528863526198
-0.19782906038634324 -0.1600064434734957 -2.431803148949302
-0.8744093797518014 -0.6971175929240636 -3.220587180516417
-0.02724145287648952 0.05877216076953062 -2.208074023337256
-0.12667736293581225 -0.2810691834058227 -3.2574024705600304
0.4869285552152359 0.3060029712345634 -2.431489206179633
-0.15625874658999014 -0.06757561304756797 -2.155559408833832
-0.5271625172316536 -0.7418585190111143 -3.3260954281879522
-0.8330599323063926 -0.5273457263495316 -2.5515154970953606
-0.671745426314194 -0.0777050841420313 -2.055471669574905
-0.4405634966418772 -0.28348125659455053 -2.5992945007107986
-0.9057079577916101 -0.5960134258790716 -3.1140787531615457
0.43106706526377747 0.18755925279776928 -2.6013500662973383
-0.326893372061164 -0.08140204930986195 -2.198643016155607
0.1697164128068333 0.0693160149517546 -2.3752245711362048
0.41780930813651096 0.39602544694718766 -1.6356999083526933
0.3829591865380617 0.23724887748675158 -2.284125381990588
0.35918797286421067 0.34107756853823673 -1.661064361772517
0.5645945843131984 0.01816383511254327 -3.364106210739099
-0.3080203543382418 -0.34784289916319794 -3.2113328420649685
0.12264470771386188 0.3701153471288029 -1.9428792942048494
-1.278012109911197 -0.42471546116941816 -2.595478940149305
-0.48565116630063515 -0.5665311705194932 -3.011013073809984
0.47660659566410135 0.41321759310290884 -1.7690250811673711
0.29294921687763364 0.06782247088624435 -2.943422221010553
0.34567350412498354 0.17492705318062918 -1.9473842906223828
-0.8381782912358926 -0.07163222938721586 -1.8494612341373806
-0.9038374323201526 0.14966227649647648 -1.6987891875671675
-0.8999942905624956 -0.13880758043423716 -2.1373973330684506
-0.23887853828597655 0.1253910557904793 -2.1097897512860757
0.9289771024947584 0.12781642836753454 -2.8650023428124336
0.4346279706427043 0.02222573408891071 -3.0853811550725476
-0.7589278604549414 0.06995764952011808 -1.4093592734377596
-0.050072842183660454 -0.02834821715110665 -2.597703248287467
-0.715862695196607 0.1118031507830276 -1.3635283385549095
-0.09017064635066371 0.009818224096095424 -2.261264289159089
-0.5476316611617114 0.02698655410472789 -2.1847558901165507
0.13053653320618774 -0.400919552315888 -3.250260279538171
-0.8800810584609551 0.08331749047311757 -1.5452507630894396
-0.10865676098573115 0.07590949808729354 -2.574646817078236
0.22494483982748614 0.15631189628271897 -2.2555583920550966
0.3183462478657936 0.19085745021126344 -2.841362371803552
1.0512701727932783 0.03984789539043296 -3.215933603260475
0.13707554348659773 0.36872948212272094 -1.6971935318394038
0.9683904534321908 0.2604662330538604 -2.340086696122851
-1.0864136100237867 -0.6831508860518526 -3.261235177580471
0.6721714082159068 0.1539209539707642 -2.4591364971558782
-0.6009965937843292 -0.4935256441287864 -2.665311044752829
-0.9311517136105661 -0.23901190967323271 -2.5082880543614134
-0.32041122893539215 0.15405620753081678 -1.5792409807183585
-0.1422408726309621 -0.08997334266440644 -2.7734154718428403
0.8608819209391739 0.4470937028609481 -1.8994899076239575
0.14938574763728293 0.12126624880184747 -2.286753578254158
0.3412396118547655 -0.2133081357124104 -3.5772368333614604
0.6889380575458495 0.47193863583687345 -1.7698379503139667
-0.11613236836472741 0.18583328178549083 -2.198317802986633
0.5193974512543904 0.44412417799616055 -1.4921256278605177
-1.1557100899785033 -0.7068831053423291 -3.072998433981757
-0.9670030133762085 -0.47563837732324477 -3.0042452153573933
0.721032349282543 0.6610425252075307 -1.7408175750788546
0.8760994938419803 0.5756386508168231 -2.2268413176798263
0.6966270944663265 -0.23509031973915945 -3.476897592465313
-0.27813491664440027 0.15909135002399571 -2.0871959853440036
-0.4610613149471277 -0.02763481925224602 -1.9520053642597446
0.8116994493586536 0.466957303193292 -1.7156628191005545
0.3950354498171782 0.37976587194545797 -2.1165531695226583
-0.7298916526726803 -0.6717890497032264 -3.106957381881574
0.22704639358720552 -0.31869803095194915 -3.4721665146020197
-0.22435592362698142 -0.43259122173382847 -3.509839893663726
0.4983084059324917 0.08631030755710295 -3.3366346307590424
0.7842665705267466 0.16041682074558336 -3.072204633502342
0.0383454441490593 0.2893762890162216 -1.867557051125157
0.034790869408195174 0.00023954805441457616 -2.4162154438567884
0.7789646552918037 0.3069527050453803 -2.403645869041868
-0.1595346376422915 0.058069411218169845 -1.8229532315673136
-0.18118347102585325 -0.2134972217592107 -3.2435069219945674
-0.21269970455630333 -0.347721019833356 -2.8897086915285173
0.689784702231065 0.4832245387155205 -2.478488093001259
-0.7320601808863113 0.1152082164322176 -1.7108103956543865
0.6416642783943003 0.28243363780604935 -2.4380760200520895
0.10491458582850685 -0.4306612433900059 -3.3757672457564563
-0.630662916572856 -0.007062848480202489 -2.0151201278002047
1.2029435237935775 0.11811768176513968 -3.185110126195499
0.28043301579669944 0.4144937420951743 -1.9311905399188276
-0.8622381513511812 -0.4015286987983238 -2.500021722348364
-0.7031042033789674 0.0876574828179694 -1.330501340831444
-0.14920470785707285 0.12899308856072478 -2.094936093981244
-0.8069325764366693 -0.3170431714468927 -2.540041058452483
-1.164883712523284 -0.6434554226387648 -2.982172897950713
-0.9129583902865751 -0.6744356593221382 -3.2896495622792794
-0.89440157864324 -0.5331012111310186 -3.1435960622932955
0.9630418992251751 -0.11587471119500593 -3.385644721525855
-0.3510635519069349 -0.3056932005215877 -3.2804941218053245
-0.4131554660980719 -0.4501844979355621 -3.0785468116805186
-0.32619371849252676 0.07761186558186085 -2.060618325084496
-0.5411867062620789 -0.30678904670920304 -2.3937229853816677
1.2498135845623612 0.04326617412079617 -3.811966336039451
-0.5772269543029558 -0.5348782939584349 -3.4840194502362776
-0.5745665962494458 0.18669268822497828 -1.4181539360503008
0.6529492942025896 0.2562963320082847 -2.337350509978219
0.5489718992714844 -0.12877053380290215 -3.264569539369727
-0.2526791669812649 -0.4997989668477446 -2.8852306921697313
0.24825258236950234 0.28290030441613523 -2.011314913865376
-0.5662916428967724 -0.6749954539548644 -3.094850482014376
0.12984691098928944 0.04856152275707421 -2.2683530410782575
-0.8646176988449316 0.18599662350041704 -1.4268881914421587
-1.1329864982931477 -0.004690712448510159 -1.7723488516149433
0.5742855280803194 -0.11861250460006799 -3.011669961246106
0.7958060564926884 0.36204542172339704 -2.548651713444111
-1.0774409296883747 -0.24053129375536816 -2.1409130954596316
-0.12020528556438924 0.1543709400200479 -1.643595410198332
-1.0804879927262387 -0.4988575815338896 -3.091415157385402
-0.4231018841354864 -0.4811977803676117 -3.4754578480563194
-0.9068636208629601 -0.7145704197940933 -3.0866436311851415
-0.12930784282399763 -0.08038668514074948 -2.5156582625606054
-0.025736440503207697 0.14888150670772946 -2.2911001793547405
0.7777221074708343 0.23995116956279364 -2.486628133114516
0.39206027591307147 0.015120498301597896 -2.9132312815462305
1.039159043948853 0.7845945960315495 -1.6171972617537638
0.7842014178627115 0.3467168806601401 -2.4642335366271637
-0.4783283602751337 -0.33621684280102343 -2.642560190989845
1.1289155223664213 0.48899107917664236 -2.3987871843985467
0.3771653953149343 0.36295439047613204 -2.199061055971129
-0.7800029121538787 0.07488107372783018 -2.128584510742224
-0.5489642895576337 -0.36367191209823824 -2.806379202462138
-0.3905107203638287 -0.5473982667571149 -3.3098278638546623
0.8260665199610696 0.21241989237918424 -2.6165801309137904
0.23535073669477946 0.1856073026187758 -2.197682988534631
-0.22415800413031084 -0.39490001809685804 -3.0363514966033884
-1.0871678573988324 -0.3291252256464458 -1.8900039925835561
0.6500119672762605 -0.08333155485177704 -3.487723651103709
0.629769338945794 0.019876982075148007 -2.954062523363284
0.3806416796843951 0.5997776477806395 -1.8248280844060414
-0.5753682902366297 -0.38035818311449743 -2.9724214224566574
0.026088277573199523 0.16245494934031854 -2.1570287155507417
1.0589053787470086 0.4793247733549861 -2.5829423504540663
-0.011682579353453843 0.2562530092288329 -1.6841126671766857
0.6222806499228651 0.21161763645029227 -3.0415286511250654
-0.7927044979795057 -0.5462546844448054 -3.2917248299717894
0.164814756860498 0.39817290254049953 -2.2499919096580174
1.153800494291176 0.4995312541679435 -2.2526424631273807
-0.16732911765968295 0.10208734590365398 -1.6991398315119852
-0.777272055628242 0.1317285645253241 -1.4515384707042798
0.2724144633202929 -0.37689117563816266 -3.3177901517518045
-0.6402694129385125 -0.23203808153512856 -2.996573665653196
0.09028033968484334 0.19150605685863686 -2.3674314376792935
-0.0594797368116547 0.40199081549942783 -1.5187645688845424
0.8082059718276098 -0.5324626147917881 -0.6466422138553172
-0.21780175378647515 -0.3588706920096796 0.6309538580112524
0.22705179933686326 0.5200035046994977 -0.1446698006060716
-0.8011188741688215 -0.7699299758995075 -0.2531857365256094
-0.6123044649809857 0.6414929972458765 0.19927201684743356
0.37769051803733 -0.017780077391407634 -0.8236526375156379
-0.5298447266276594 -0.07679583821675595 -0.6028169938921475
-0.9490475284423594 0.4587953965123053 0.4498334944382383
-0.33921650727659447 0.686988252127311 -0.14311504809785314
0.7293722895270687 0.31413084924577905 0.1620713148361803
-0.598545023929818 0.059093220956789816 0.7888648368551447
-0.39001204832956793 0.7418912183221067 0.8174905457167763
-0.3403108746362353 0.3661487326731283 0.7984418991319375
-0.8486062364833933 0.7571757264095409 -0.6183212734630388
0.6995378200358613 0.33423757739840787 -0.31132160909989226
-0.697248860014402 0.2707419229769068 0.6955760874294832
0.6436987495280211 0.2564791942613156 0.9126030195104642
0.17984625415153954 -0.6043344307041614 -0.1413385547670154
-0.32650800259766544 0.983890023814562 -0.23952700776547053
0.9854017473296359 0.03760850146682837 -0.6554405970457491
-0.8508518574970403 -0.25938861245222467 -0.7531622803705402
0.2690374325836833 -0.17216030854118225 0.9818312650509002
0.8599112473066357 -0.7015279353805 -0.21023547492639905
-0.0768405780752277 0.1218975102438904 0.560727046578537
-0.025612181853152505 -0.1600128959795184 -0.4760005905613287
0.8216122781735169 -0.9554569769343917 0.6422437964379293
-0.623063200667163 0.37151379834509446 -0.2895812213207125
0.9484252557901827 -0.7544557411011601 -0.6248602147655209
0.7788849509289577 0.1668126292164558 -0.38150723068244075
-0.998471229043624 -0.5448045233554939 -0.7091927316575286
-0.5931323512598188 0.7926451136080093 0.7461887565392811
0.4005788752668995 -0.05900464769558189 0.6542720046645767
-0.008347205829575266 -0.2730226334301895 -0.4487937944782825
0.8494816270767434 -0.22602153148741566 -0.014238253137359491
-0.4911237953711558 0.7699330376761266 -0.23347308638942654
-0.4048505693722495 0.43518992438950876 -0.6182601136553851
-0.7636147413059231 0.6739955644270244 0.4882718427390704
0.1810410952942343 -0.5142168500702586 0.24649429037516812
0.2767106414823459 -0.3448611117753497 -0.8650213138649154
0.7610771951286535 -0.08008653785148323 0.5277454361328597
-0.49222275811452065 0.1827743645350337 -0.14240967930240456
-0.23579871490172088 -0.7465732323061545 -0.5114666735820483
-0.8413168340833621 -0.39428339056484285 0.48340960046311077
0.23003144994209768 0.3448221978678516 -0.9832338409499368
0.35675394450263975 0.006361381085774109 -0.5381830990316416
-0.6502069820361556 -0.6300340688983403 0.6885200101501969
0.9651795786101707 0.8274792496832633 -0.30526115925437436
0.5604491593827274 0.09290918140286131 0.6328847951118755
-0.0325460976221883 0.17990259659880747 0.574526895048523
-0.7995307137937353 0.0740142336810814 -0.2680333066606915
